585378.3774 2946800.353 -61.0
590758.4492 2947527.3 -61.0
593850.1299 2947956.472 -63.0
592215.0611 2946635.816 -62.0
595142.746 2946551.243 -64.0
594927.3599 2949343.77 -63.0
598167.2878 2946529.991 -65.0
596582.7492 2947906.184 -64.0
597677.3777 2949293.865 -64.0
599303.8779 2948201.241 -65.0
599082.7465 2950480.588 -64.0
596231.847 2951042.144 -62.0
597780.2706 2952008.662 -63.0
595831.3389 2953743.893 -60.0
599191.3283 2953557.583 -62.0
589356.648 2962027.352 -52.0
597063.6169 2963196.963 -55.0
598480.6925 2960865.539 -57.0
599235.4893 2963288.004 -56.0
598700.4676 2957146.108 -60.0
581536.2124 2958790.833 -49.0
579598.4827 2957868.553 -50.0
578811.7729 2956511.834 -50.0
581497.3577 2956590.661 -52.0
579493.295 2954916.708 -51.0
578419.9308 2952718.292 -52.0
580628.9545 2952811.671 -53.0
582285.8775 2954899.164 -53.0
579368.9721 2950770.744 -53.0
581764.4141 2950794.769 -54.0
576958.3517 2950748.989 -51.0
577628.2698 2948744.511 -54.0
578569.6949 2946795.181 -56.0
580504.9731 2948835.953 -56.0
581956.7787 2946791.072 -58.0
576395.3352 2946733.223 -54.0
582232.2686 2968117.52 -44.0
577649.0035 2965807.218 -42.0
579540.7319 2964886.577 -44.0
578260.5344 2962865.2 -44.0
580971.2728 2962776.85 -46.0
582512.8837 2964944.341 -46.0
574206.7958 2967777.954 -41.0
572616.3472 2966801.144 -40.0
574475.9185 2965613.362 -40.0
572701.7854 2963674.565 -41.0
571728.1062 2961714.993 -42.0
574589.937 2962869.052 -43.0
576201.8089 2963867.725 -43.0
576418.9142 2961841.37 -44.0
571916.5379 2959638.609 -43.0
573829.8927 2958723.837 -44.0
573931.5447 2960681.919 -43.0
575326.8749 2956562.797 -47.0
575618.4525 2959700.452 -45.0
576885.8905 2957837.009 -48.0
578342.0151 2959755.321 -46.0
579903.8814 2960860.391 -47.0
582957.0408 2960886.392 -49.0
587487.6404 2960984.023 -52.0
538137.9649 3002982.715 -2.5
538868.4421 3002456.818 -3.8
571710.3955 3013531.539 -15.5
569427.2949 3012864.146 -14.7
568487.2767 3012338.19 -14.4
567875.5418 3010962.532 -14.7
567115.8236 3009592.993 -14.8
568430.2675 3008635.84 -16.2
568391.9972 3006636.354 -17.4
569519.6579 3007677.487 -17.4
570271.652 3006653.874 -18.0
572221.9621 3006629.847 -19.2
571276.7881 3008166.13 -18.0
573970.3813 3006224.736 -20.5
573843.7508 3007392.669 -20.0
573206.8963 3009141.723 -18.6
570855.6886 3009177.362 -17.4
574945.1047 3010376.808 -19.2
572319.1117 3010502.0 -17.5
569516.8188 3009444.31 -16.2
571177.9247 3011107.356 -16.5
569596.63 3010713.066 -15.8
569957.6151 3011833.645 -15.5
572031.4725 3012206.171 -16.5
573488.7782 3012698.514 -17.1
573759.9175 3011477.395 -17.8
566784.045 3013091.607 -12.9
566465.2542 3011849.636 -13.4
566980.3821 3007673.311 -16.0
567053.6557 3005508.823 -17.0
569157.7924 3005388.324 -18.2
563814.4353 3013478.506 -10.7
562731.3853 3012676.095 -10.3
561722.9826 3011694.651 -10.1
563659.9456 3011704.436 -11.3
565063.9043 3012709.219 -12.0
565055.2403 3011342.206 -12.5
563301.5399 3010573.063 -11.7
564686.7438 3010100.485 -13.0
562460.2425 3009464.077 -12.0
561354.6037 3008440.751 -12.0
563638.9607 3008549.38 -13.4
566072.2894 3010353.412 -13.7
561267.1368 3010689.469 -10.2
560175.302 3009074.119 -10.5
561190.9054 3013184.821 -9.2
560274.3888 3012103.714 -9.1
562316.6597 3007461.111 -13.2
561476.1958 3006591.015 -13.2
560378.9074 3005302.502 -13.0
562363.4643 3005497.115 -14.0
561487.2869 3004346.811 -14.2
560266.7901 3003374.367 -14.0
562701.8473 3003317.732 -15.4
563673.6357 3004352.523 -15.2
564623.5739 3005498.089 -15.4
565574.59 3004399.362 -16.6
564765.5354 3007642.581 -14.6
565716.3871 3006549.338 -15.6
563592.5816 3006548.68 -14.4
569714.5741 3003953.415 -19.4
566929.2126 3003360.689 -18.2
568559.1446 3002778.005 -19.4
564524.6574 3003407.153 -16.6
563800.8597 3001734.353 -17.2
562446.4201 3000413.912 -17.0
560902.481 2999252.819 -17.0
562643.3997 2999295.49 -18.0
561990.1676 2997495.797 -18.4
563743.699 2997645.537 -19.4
565245.0875 2998850.939 -19.6
564327.4133 3000579.025 -18.2
566358.9977 3000012.083 -19.8
565823.7865 3001921.185 -18.6
567522.6365 3001317.528 -19.8
568918.7571 3000081.97 -21.0
567417.5207 2998939.632 -21.5
566367.6509 2997658.865 -21.0
562819.0865 2995808.594 -20.0
564920.8261 2996520.082 -20.0
564150.0347 2995691.698 -20.5
567614.6648 2996423.407 -22.5
566151.9107 2995226.5 -22.5
562842.1756 2994411.441 -20.5
563567.3685 2992462.913 -22.0
563219.0036 2989220.323 -23.5
564895.1399 2993977.96 -22.0
564810.9827 2991519.516 -23.0
566259.046 2992601.993 -23.5
561538.9995 2990366.336 -21.5
562498.6761 2991583.522 -21.5
564295.0808 2990408.39 -23.0
565850.1756 2989772.323 -25.0
566486.0616 2990335.247 -25.0
564789.0346 2988779.784 -25.0
567577.8015 2991323.574 -26.0
568689.6446 2992629.207 -25.0
568832.6447 2990176.984 -29.0
567416.867 2989302.151 -24.0
569183.2434 2989241.288 -17.6
570137.0738 2991389.648 -28.0
571078.6656 2989428.157 -30.0
572524.4642 2992375.979 -27.5
572167.6239 2990086.501 -29.5
570670.4192 2988753.212 -6.8
568656.2609 2988021.084 -8.6
570077.0556 2988325.083 -16.8
571309.9267 2988189.266 -31.0
570017.6512 2987600.277 -36.0
567670.0174 2988219.835 -17.4
567775.1529 2987551.983 -20.0
568809.7698 2986997.758 -32.0
568110.4795 2986570.849 -29.0
568885.0261 2986134.35 -17.4
569657.002 2986170.35 -19.0
570391.5038 2987228.661 -2.7
570390.9705 2986696.276 -9.2
567401.3199 2985347.033 -29.0
568834.8529 2984998.676 -31.0
570024.9659 2985312.045 -1.6
566877.6433 2986678.797 -26.0
566420.9099 2986041.717 -27.0
570134.6278 2983988.512 -31.0
572303.7385 2987607.975 -30.0
571846.8255 2987055.35 -4.7
572055.2229 2986554.379 -4.2
571421.8573 2986328.624 -5.6
572600.3539 2986183.78 -28.0
571711.0063 2985092.625 -30.0
570928.7482 2982496.124 -32.0
568873.106 2983034.868 -29.5
569547.9715 2981536.083 -32.0
567864.174 2981617.696 -32.0
567576.4815 2980183.144 -29.5
568500.1287 2979804.515 -3.7
567910.8375 2980529.067 -19.0
568182.0013 2979313.492 -34.0
569532.3031 2979148.907 -34.0
568083.5073 2977143.153 -32.0
569761.0374 2977663.961 -33.0
570974.0254 2976859.209 -33.0
570921.4438 2978362.865 -35.0
571237.2633 2980221.191 -33.0
568716.6173 2980736.278 -33.0
572294.2485 2979220.054 -35.0
571467.7232 2978463.864 -27.5
572339.993 2978627.617 -29.5
571618.4208 2977093.979 -29.5
569562.2814 2975642.74 -33.0
572112.73 2975805.308 -35.0
557407.5492 3013302.037 -7.9
555876.7431 3012612.507 -7.1
554494.4072 3013331.113 -6.6
554548.7 3012184.39 -6.2
555179.1605 3011244.196 -6.3
556774.1827 3011786.224 -7.5
556153.4003 3010565.913 -6.9
557657.9024 3010910.621 -8.3
557127.5508 3009641.765 -8.1
554005.5263 3011378.462 -5.9
554256.0237 3010420.678 -6.0
554981.0178 3009605.684 -6.1
553770.57 3008755.753 -5.7
554047.6123 3007771.479 -6.4
554934.0223 3008294.51 -6.8
556241.367 3009109.832 -7.4
556009.088 3007938.549 -8.2
557275.417 3008102.705 -9.2
557947.6342 3009240.85 -9.1
558867.8899 3009993.009 -9.2
558593.7566 3008425.613 -10.0
555071.191 3007124.81 -9.0
557007.7394 3006992.742 -9.9
558273.8142 3007227.406 -10.6
559945.3943 3009948.017 -9.8
559938.3096 3007039.084 -11.8
557219.985 3005711.512 -11.0
558401.7707 3005933.502 -11.1
552972.4448 3013419.068 -5.8
553081.5893 3012575.164 -6.0
551928.7209 3011673.081 -6.1
553072.5802 3011598.752 -6.2
552742.8756 3010524.125 -7.1
551018.1913 3010626.883 -5.8
553256.9379 3009633.363 -6.5
551806.4448 3009354.491 -17.0
551179.0765 3008942.772 -18.6
549797.7151 3008582.874 -0.4
549210.4158 3008026.211 -1.1
548478.6445 3007271.0 -1.9
548498.6305 3006659.497 -2.5
549548.7807 3007020.03 -2.0
549804.8476 3007900.992 -2.3
550548.863 3006698.462 -3.3
550532.6039 3007450.768 -7.0
551381.0761 3007683.616 -9.9
551059.8021 3006209.21 -2.2
547434.8222 3005555.941 -8.3
548166.349 3004824.751 -6.3
548856.6641 3005197.088 -4.6
550071.7116 3005069.904 -4.7
549561.9321 3004455.292 -5.6
548751.1075 3003834.209 -7.5
550530.597 3003899.399 -7.9
549820.633 3003151.872 -8.9
546564.0569 3004010.675 -0.8
546713.6593 3003546.492 -9.2
548086.8362 3003535.877 -3.0
550896.4508 3008705.813 -8.1
550778.7666 3005204.785 -1.3
549220.48 3008002.2 -1.1
551717.0406 3008189.901 -8.5
551958.1422 3008102.214 -8.5
552224.6928 3007989.295 -6.2
553108.8661 3007650.93 -6.5
552736.6843 3008764.343 -6.7
552758.4365 3006623.044 -6.4
552262.5541 3006016.901 -6.8
552921.3962 3005056.527 -7.7
553550.2587 3006174.451 -8.4
553719.3793 3006873.205 -4.8
554763.8652 3006087.213 -10.8
553948.0537 3005480.803 -10.6
550821.3077 3004571.681 -1.1
551782.4124 3004153.166 -12.4
550399.5467 3002834.083 -1.8
549978.1102 3001684.464 -12.9
551234.3591 3002929.741 -10.7
551029.8929 3001270.378 -12.0
549932.8073 3000653.175 -12.8
552147.3673 3000624.21 -12.1
552137.6264 3001942.627 -11.9
552596.9932 3003233.299 -11.8
553521.9103 3002341.472 -12.0
553851.9208 3001265.351 -12.0
553667.2667 3003909.651 -11.9
553753.9976 3004249.072 -3.6
552337.7421 3004471.175 -3.0
555807.4665 3006402.827 -10.0
554833.3635 3004587.274 -12.1
556123.4571 3005022.534 -11.3
557250.2304 3004594.638 -11.8
555689.4304 3003724.096 -12.1
554521.1357 3003177.582 -12.1
555059.283 3001912.325 -12.3
556355.7473 3002362.687 -12.5
558759.3974 3004853.395 -12.2
557224.5541 3003297.104 -12.3
558501.3618 3003449.745 -12.7
558014.444 3002158.732 -13.1
556953.1872 3001681.97 -13.0
555671.2547 3001711.39 -11.5
555933.334 3000987.129 -12.7
554096.975 2999325.513 -12.4
559593.3702 3002057.798 -14.2
558024.182 3001015.072 -13.7
557069.3271 2999198.652 -14.2
559298.9541 2999177.355 -15.8
561587.5918 3002185.023 -15.4
560724.4173 3000469.302 -16.0
559361.0944 2996293.982 -17.0
560394.9624 2997413.036 -17.2
560909.8732 2996206.322 -18.2
560134.2503 2994493.783 -18.6
561574.5352 2994483.181 -20.0
561309.3569 2993772.751 -20.5
562451.5314 2993496.506 -20.5
560313.0706 2993032.309 -19.8
559597.5475 2992513.495 -19.4
559551.1523 2992081.938 -8.6
560012.2049 2992392.503 -9.8
560840.4879 2992585.924 -20.0
561495.6342 2992652.562 -21.0
560308.3541 2991564.154 -20.0
559285.9294 2990451.171 -20.0
561437.2481 2993345.784 -8.2
560382.7656 2989242.596 -20.5
559038.2913 2988432.465 -20.5
561478.3366 2988308.485 -22.5
560292.2946 2987167.54 -22.0
562750.3583 2987020.958 -23.5
555284.9599 2997771.162 -13.6
555232.2155 2995361.282 -14.1
558229.0057 2998059.246 -15.4
557336.3574 2996613.634 -15.6
556565.7736 2995047.803 -15.8
555307.9007 2993668.007 -15.1
555336.7689 2992122.019 -15.8
556654.4989 2992964.873 -16.8
558493.0529 2993537.154 -17.8
558636.9945 2991960.85 -18.6
552736.8079 2998597.871 -12.7
553766.7513 2996629.631 -12.9
553730.3291 2994859.118 -13.4
552272.5241 2993813.507 -13.2
553588.0742 2993114.332 -14.1
552614.634 2992061.813 -14.1
554097.9477 2991328.052 -15.2
553380.7331 2990091.391 -15.5
556469.4907 2991012.526 -17.4
555073.4019 2989904.866 -16.8
550227.4467 2995433.84 -12.0
549553.8704 2994712.406 -11.6
551495.6156 2997695.389 -12.3
552441.2817 2995841.052 -12.6
551233.9124 2994815.898 -12.3
550211.9877 2993450.259 -12.5
551132.2641 2992790.104 -13.1
550394.9376 2991074.374 -13.2
552026.3061 2990583.573 -14.4
550777.1185 2989323.823 -14.2
552271.1181 2989118.476 -15.4
550247.4752 2988496.836 -14.4
561403.9796 2986000.271 -23.0
559262.1756 2985963.518 -21.5
560723.2692 2984586.518 -23.5
564961.2195 2986758.624 -26.0
563643.0971 2985967.366 -24.5
562980.3557 2984535.94 -25.0
561698.3148 2983506.895 -24.0
561097.7166 2981916.887 -24.5
559659.7885 2980199.244 -25.0
562657.1049 2980416.667 -26.0
560989.5961 2978759.263 -26.0
564959.7545 2983637.971 -26.0
565604.7726 2985051.886 -26.5
568635.6812 2985669.195 -2.5
580881.626 3000401.854 -28.0
579808.1964 2997251.143 -28.5
580850.9819 2996977.781 -18.6
575013.2879 3003734.877 -22.5
568980.162 2997736.156 -22.5
564036.9324 2987822.597 -25.0
571066.0639 2974682.476 -35.0
568364.9732 2974107.257 -33.0
569670.0987 2972640.838 -34.0
566819.9909 2972616.578 -33.0
568160.505 2971127.955 -35.0
570225.4712 2969572.69 -37.0
568407.3379 2968127.441 -37.0
571327.0715 2967728.704 -40.0
567387.4058 2966541.751 -37.0
569964.824 2966635.222 -38.0
568763.7195 2965092.377 -39.0
563069.8175 2964868.429 -35.0
565894.1575 2965085.918 -37.0
571286.3582 2965556.657 -39.0
576333.9638 2971853.453 -39.0
571702.2809 2971605.629 -37.0
566965.5231 2969514.361 -34.0
576482.3378 2967758.884 -43.0
567439.3049 2963434.011 -39.0
570149.5615 2963572.384 -40.0
569018.8263 2962029.54 -40.0
567675.3229 2960582.638 -40.0
570317.104 2960438.046 -41.0
569662.7708 2958959.261 -42.0
565006.0859 2957485.688 -40.0
568208.931 2957542.453 -42.0
568388.0636 2954632.014 -44.0
569845.7339 2956579.497 -44.0
571398.7651 2957723.464 -45.0
563510.9732 2958732.758 -39.0
565167.3567 2954429.49 -42.0
563681.5339 2952910.751 -42.0
566800.9325 2952988.644 -44.0
565448.03 2951408.351 -43.0
563882.1534 2949924.184 -44.0
560655.8819 2949855.341 -42.0
568072.9232 2951466.339 -46.0
569732.1404 2953534.672 -46.0
571184.2632 2954620.881 -46.0
573227.7522 2952714.745 -48.0
571678.4493 2951609.916 -48.0
566665.569 2958563.451 -41.0
566811.7678 2955966.741 -42.0
569983.0421 2949699.939 -48.0
572614.2822 2956592.399 -46.0
573982.6736 2954663.399 -47.0
576753.4327 2954749.668 -49.0
575426.5758 2952739.989 -49.0
574548.591 2950763.71 -49.0
572970.5863 2949707.894 -50.0
574734.5122 2948759.804 -52.0
574229.3956 2946687.87 -53.0
571886.5856 2947548.912 -51.0
570563.0134 2946423.849 -51.0
567037.5359 2949517.611 -46.0
565354.576 2948439.123 -46.0
563778.93 2947060.689 -44.0
568365.2146 2947570.804 -48.0
566681.7302 2946562.717 -48.0
560431.5812 2952872.073 -40.0
558897.5018 2951309.304 -40.0
562100.4207 2951377.0 -42.0
555490.5843 2954231.09 -37.0
557085.1147 2955722.672 -37.0
560520.1279 2955802.214 -38.0
558501.5466 2954371.864 -38.0
556875.9547 2952710.118 -38.0
555684.25 2951177.552 -38.0
555771.147 2948292.561 -40.0
557239.2558 2949752.463 -40.0
557252.1463 2946888.036 -41.0
558954.0466 2948264.477 -41.0
560562.0759 2946998.85 -43.0
562178.4298 2948438.968 -43.0
563435.4708 2955901.285 -40.0
562266.3724 2954304.943 -41.0
581331.6188 2996864.0 -29.0
581526.548 2996146.553 -29.0
585439.7074 2994966.822 -18.2
582213.6917 2994992.741 -18.0
555421.1717 2969377.056 -27.0
558033.6611 2969397.629 -29.0
561405.0361 2969457.72 -31.0
564388.3675 2969454.941 -33.0
556672.6723 2967820.263 -29.5
555337.3944 2966340.081 -29.0
558127.0033 2966379.096 -31.0
559937.9112 2968011.892 -31.0
556863.003 2964757.639 -31.0
555289.3105 2963205.397 -31.0
558317.6602 2963324.967 -33.0
556796.9043 2961781.437 -33.0
560108.4011 2961858.555 -36.0
559952.7015 2964895.532 -33.0
561426.1689 2963295.531 -35.0
561428.4662 2966456.52 -33.0
562966.0142 2967947.187 -34.0
564527.0505 2966498.455 -35.0
564630.9978 2963435.132 -37.0
563384.3815 2961971.69 -37.0
561748.0823 2960303.151 -37.0
558560.0713 2960173.179 -35.0
553964.7028 2958651.112 -33.0
556932.5956 2958708.27 -35.0
560190.5781 2958877.038 -37.0
566043.945 2961904.041 -38.0
564883.4412 2960399.429 -39.0
562016.7642 2957337.418 -39.0
558527.3543 2957265.609 -37.0
565881.7933 2967976.412 -35.0
553752.2351 2955687.244 -35.0
547062.7762 2957089.757 -28.5
548588.6238 2955452.145 -30.5
547091.8939 2954006.171 -31.0
549556.9718 2954112.763 -33.0
548599.3828 2952642.062 -33.0
547412.1334 2951073.182 -33.0
549763.1863 2951099.849 -35.0
548628.7286 2949592.752 -35.0
544585.3313 2948083.897 -32.0
547361.4503 2948067.405 -35.0
549960.3999 2948148.075 -36.0
551422.3387 2949550.704 -37.0
551233.237 2952599.388 -35.0
552384.6077 2954150.629 -35.0
551309.0467 2955710.26 -33.0
552487.3827 2957075.717 -33.0
549934.1659 2957065.403 -30.5
553910.9381 2952645.825 -37.0
552608.8435 2951217.38 -37.0
555482.0732 2957150.314 -35.0
554135.7722 2949659.208 -39.0
552692.4815 2948097.211 -38.0
567487.2464 2984118.545 -28.0
559376.4443 2983368.7 -23.0
566345.6978 2988918.993 -6.8
565690.3323 2987853.553 -25.0
566217.9266 2987083.359 -2.3
566538.6188 2987109.737 -19.4
566749.768 2987844.17 -25.0
564634.6675 2988089.02 -5.6
564498.0187 2981548.523 -26.0
566561.2174 2982585.659 -27.5
566960.7582 2981074.652 -29.5
565516.1735 2980088.164 -27.0
563977.7084 2978789.074 -27.0
566517.7656 2978802.259 -29.0
565423.9754 2977429.009 -29.0
566348.698 2976703.465 -30.5
558188.3873 2978743.39 -25.0
559740.5332 2976916.019 -27.0
558000.7877 2975434.674 -26.0
555191.1904 2972360.417 -26.0
553858.6597 2972381.124 -25.5
557979.4679 2972399.41 -27.0
559984.33 2973882.357 -27.5
561035.0125 2975554.887 -27.0
562615.9204 2976974.109 -28.0
565151.5468 2976210.701 -30.0
564114.2537 2975490.796 -29.0
562692.7869 2973939.665 -28.5
565630.992 2973928.165 -30.5
566010.7856 2975535.89 -30.5
566778.113 2975575.226 -31.0
563970.8237 2972463.698 -31.0
565674.2651 2970994.055 -33.0
562698.171 2971031.856 -31.0
561292.9763 2972528.679 -29.5
559775.7801 2970922.351 -29.5
561299.4136 2971205.013 -30.0
556659.974 2973777.604 -25.5
556564.9811 2971352.321 -27.0
552095.9919 2966238.324 -27.0
554039.5041 2964719.517 -29.5
552583.3958 2963261.722 -29.0
551127.6041 2961644.969 -29.5
553925.8237 2961561.202 -31.0
555383.4368 2960263.866 -33.0
552628.235 2960124.924 -31.0
551193.228 2958518.458 -31.0
553776.5386 2967793.781 -27.5
551119.082 2964626.578 -27.5
549414.2584 2963118.693 -27.0
548139.303 2961678.731 -27.0
546753.987 2960150.008 -26.5
545236.0272 2958565.574 -26.0
543729.0366 2956892.822 -26.0
550898.489 2967329.441 -25.1
548862.853 2965842.688 -24.7
548084.0291 2964603.63 -25.0
546643.6343 2963130.247 -25.0
545148.0959 2961546.272 -24.5
543707.5159 2959929.35 -24.5
542387.4686 2958478.429 -24.0
541012.5399 2956828.526 -24.0
539513.3244 2955962.342 -23.0
548327.7684 2958576.99 -29.0
549492.1822 2960127.292 -29.0
545734.7678 2955562.84 -28.5
542755.894 2955404.008 -26.0
542828.2113 2952406.783 -27.0
547072.4264 2971798.298 -19.5
545646.5851 2969708.576 -19.9
545370.5091 2967942.279 -20.7
544147.947 2966303.499 -20.8
546995.9973 2969017.148 -21.1
547851.4478 2970366.318 -21.1
549380.1855 2971563.595 -21.4
550797.4924 2972970.066 -21.7
551762.9208 2974231.311 -22.0
553092.8872 2975295.545 -23.0
552748.5901 2973033.232 -24.0
548441.9392 2973220.643 -19.6
546225.9157 2972621.131 -18.4
550583.1969 2970412.281 -23.1
552414.8179 2971394.059 -24.5
549098.9163 2969086.057 -22.9
547557.4623 2967777.315 -22.5
546661.6361 2966545.159 -22.6
543193.7829 2964530.456 -21.5
545270.4605 2964537.723 -23.0
543760.802 2962953.596 -23.0
542647.3491 2966329.683 -19.7
543849.3373 2967975.742 -19.6
543557.3777 2969701.189 -18.4
544791.0602 2971241.119 -18.1
542806.4102 2972526.106 -16.3
544496.5808 2973664.899 -16.8
546930.4268 2974023.124 -17.8
549427.5405 2974413.821 -19.5
553955.4791 2970260.338 -26.0
553494.5161 2971571.56 -26.0
554003.548 2973871.479 -24.0
552434.6678 2969237.17 -25.5
554482.0913 2971542.991 -26.5
552906.1525 2984040.826 -18.4
554466.8742 2985190.005 -18.8
554428.9404 2983368.491 -19.4
552623.3937 2980830.218 -19.2
552782.1213 2978731.974 -20.5
554231.1719 2980166.854 -21.0
555996.1155 2981876.496 -21.5
553836.2783 2981770.055 -19.8
552235.892 2982830.173 -18.2
552136.7331 2985474.521 -17.2
556990.4596 2980381.896 -23.0
555568.675 2978837.913 -25.5
551541.0712 2976823.837 -21.5
554081.0374 2976884.236 -23.0
555384.1537 2975414.324 -24.5
555814.1483 2984311.814 -20.0
557092.3957 2983278.582 -21.5
558573.0651 2982011.689 -24.0
557968.0251 2984790.776 -21.5
556343.8915 2985755.214 -20.0
550934.9038 2986413.423 -15.5
553469.3225 2986658.537 -17.6
555310.4441 2987068.616 -18.6
557891.1467 2986923.907 -20.5
557979.2707 2989544.951 -19.4
556596.4939 2988213.203 -19.0
555214.7838 2988171.784 -17.5
553669.677 2988418.881 -16.5
549339.8361 2981493.432 -15.9
550672.458 2981646.876 -17.2
563291.6678 2982487.142 -25.0
548948.1754 2989660.482 -13.0
548609.5692 2987903.702 -14.2
549877.1639 2987397.509 -14.8
551787.1487 2987588.581 -15.6
551169.0562 2983660.362 -17.6
549858.8774 2983238.956 -16.3
550225.7739 2984968.77 -15.3
549531.9604 2985650.055 -15.8
548503.2369 2984522.277 -13.5
548369.7442 2986219.521 -15.4
547351.9728 2987310.328 -14.5
547736.1295 2984561.649 -7.5
548818.9408 2984720.969 -1.1
547962.6155 2983888.99 -10.4
548160.9722 2982743.619 -15.8
545282.6946 2987026.175 -11.2
545908.2673 2985637.566 -9.8
545959.4664 2984897.295 -11.4
546785.9355 2985477.737 -12.0
546168.2489 2983258.318 -13.0
544804.0826 2982592.126 -12.9
545031.1946 2984413.487 -11.7
547178.8814 2986466.434 -8.5
546314.4304 2986644.779 -12.0
544523.1936 2987701.211 -11.3
546051.1053 2982026.176 -13.7
540411.9464 2981373.667 -10.3
542330.0903 2981542.23 -12.6
544087.8959 2981160.3 -13.3
547714.4504 2980990.141 -15.0
543523.5498 2985227.985 -11.5
543940.2869 2987048.718 -10.7
538971.2856 2981325.466 -8.1
537224.4227 2981655.231 -7.4
543081.869 2983446.149 -11.6
545413.0928 2989712.346 -11.4
545259.0313 2988451.631 -11.7
543837.5166 2989213.256 -10.7
543338.3099 2988321.457 -10.7
542355.3145 2987128.311 -10.1
542613.9989 2986221.352 -10.6
541595.3578 2985072.025 -10.5
540724.6177 2984469.729 -10.0
541602.4032 2982947.439 -11.1
543391.9768 2980449.343 -13.6
545499.4358 2980483.254 -13.9
542407.7825 2989851.603 -9.7
542533.4525 2989173.51 -10.2
546587.5435 2988574.258 -12.7
546977.4864 2986111.448 -2.9
548743.8255 2996240.119 -11.4
547276.3639 2994888.65 -11.0
547678.6412 2993803.195 -11.1
548855.0719 2992565.606 -11.7
548966.2395 2991174.0 -12.7
547483.0635 2991952.424 -11.3
546164.7245 2991084.049 -11.3
547243.7604 2989995.478 -12.3
544421.4735 2990716.487 -10.7
543900.0457 2991164.005 -9.9
543159.0327 2991425.747 -10.2
544802.7177 2992515.189 -10.5
548184.4985 2997398.694 -11.2
549604.6653 2996814.21 -11.6
547552.6877 2996806.224 -10.8
545901.2252 2995655.097 -10.1
546854.7075 2997402.437 -9.9
546820.47 2997138.112 -10.4
546157.9345 2997690.45 -10.0
546037.9277 2996800.545 -9.8
545299.3176 2994049.802 -10.2
544890.2931 2997562.537 -9.2
544681.7181 2996786.81 -9.2
543896.8992 2997074.647 -8.8
542698.7018 2997220.202 -8.5
541863.7444 2996724.199 -8.4
541824.0134 2995438.199 -8.9
543654.8392 2995779.156 -9.2
545064.1563 2995748.932 -9.5
545031.5687 2995017.763 -9.7
546156.8217 2993224.885 -10.8
545637.8137 2993020.361 -7.3
541715.3211 2988416.076 -9.8
541937.9758 2990346.655 -6.8
544062.7891 2992486.129 -9.9
541034.3753 2989136.447 -9.7
537699.318 2987557.298 -8.2
538941.6229 2987675.67 -8.5
542610.6972 2994621.708 -9.1
540015.6919 2988031.579 -8.9
541215.9899 2987506.682 -9.6
541599.2878 2991508.569 -9.4
542397.0335 2992691.804 -9.0
543033.3591 2992103.713 -9.4
544002.2118 2994679.382 -9.5
543001.9565 2993548.383 -9.3
544621.2103 2994003.318 -9.8
540435.8803 2997080.568 -8.3
540465.414 2996120.708 -8.8
540629.3537 2994456.556 -9.0
540607.4198 2993073.483 -9.0
541336.2938 2993771.798 -9.1
549643.3987 3005867.533 -3.3
550360.2025 3005976.021 -1.1
551468.3279 2999123.985 -12.4
550032.8509 2998079.076 -11.8
549441.9739 2999410.761 -11.8
547061.8075 3002482.935 -15.7
548747.3673 3002533.433 -13.3
548230.4499 3001672.232 -14.4
546940.9206 3000457.656 -11.3
548715.7078 3000769.62 -13.2
548076.0675 2998604.662 -11.0
547360.5258 2998279.636 -10.5
544911.4613 2998569.972 -8.7
544679.0461 2999537.715 -8.8
544480.9745 3000760.829 -8.4
545633.0364 3001108.348 -10.1
545841.4755 3001883.825 -12.0
545661.51 3002948.314 -14.6
544501.1939 3002495.178 -9.7
545411.1537 3004012.458 -16.4
547364.3162 2999600.456 -8.9
546696.2123 2999316.176 -10.3
545911.1362 2999700.678 -9.9
544468.4322 3004273.104 -24.1
545937.7276 3004428.066 -17.0
547592.4028 2999821.445 -11.4
539298.0634 3002752.716 -4.5
539933.2217 3002325.163 -5.1
540688.7819 3002781.829 -5.2
541576.7711 3003101.65 -4.1
541123.118 3001867.755 -5.3
541898.243 3001738.289 -5.6
542899.1714 3002507.561 -6.5
543799.8295 3001718.419 -7.6
543591.5005 3003390.214 -11.2
537613.8977 3000791.435 -0.7
538205.4809 3000229.77 -1.5
538926.276 3000601.776 -2.2
539983.0421 3000517.081 -3.4
540644.4042 3000193.462 -4.5
541698.5679 3000901.276 -5.5
542984.4978 3000738.369 -6.7
543848.8681 3000292.366 -7.9
544082.2227 2999034.1 -8.3
542932.1495 2998043.862 -7.9
546011.7708 2998611.071 -9.9
541452.7436 2997934.655 -8.1
541379.5537 2998762.148 -7.8
539650.2975 2999830.743 -2.7
540487.8755 2999481.243 -2.9
540202.5687 2997851.309 -7.5
539181.0787 2997848.06 -7.9
538958.6735 2998569.437 -0.4
539385.5609 2997232.267 -8.3
538675.0002 2996340.56 -8.6
536886.0554 2996713.844 -7.2
535204.9702 2996356.713 -5.4
538280.8196 2999086.852 -0.1
538717.3095 2999732.72 -1.4
539729.2644 2998811.375 -0.9
541689.6775 2999183.368 -2.8
541972.761 2999839.401 -6.3
543109.3187 2999621.4 -7.5
542467.8242 2999251.152 -7.3
537104.5088 3000191.99 -0.9
533055.5756 2997137.455 -3.0
533084.0415 2996362.539 -3.6
532683.5091 2994608.767 -4.3
533372.4601 2993897.1 -5.0
534119.2916 2994594.989 -5.5
533447.7974 2995368.276 -4.5
533294.2068 2993509.301 -5.0
532955.7952 2991561.461 -5.6
533162.6829 2989958.413 -6.4
533847.972 2990700.394 -6.3
533630.2773 2993016.886 -5.5
534328.1944 2992296.393 -6.2
534852.3395 2993892.331 -6.3
534904.6652 2997230.555 -4.4
534484.3534 2996366.328 -4.7
534108.5343 2995308.409 -5.1
535554.9792 2994616.609 -6.6
536204.6961 2995340.733 -7.0
536929.1148 2994602.98 -7.6
536156.1783 2993843.183 -7.2
535806.5089 2992908.407 -7.0
536557.5168 2992152.944 -7.3
537313.0988 2992851.147 -7.8
537891.9026 2993716.193 -8.2
538687.2325 2992899.372 -8.4
538725.0657 2992062.557 -8.3
540284.9822 2991900.092 -9.1
537810.2625 2991584.004 -7.8
535319.2796 2990748.516 -6.8
536791.1642 2990594.159 -7.6
534970.1131 2989575.619 -7.1
533588.708 2988814.0 -6.8
534286.9987 2988040.383 -7.3
535670.3812 2988123.562 -7.5
533099.591 2987155.87 -7.4
529846.3689 2987597.177 -6.0
531846.7698 2987672.607 -6.6
535206.0333 2987152.798 -7.5
538989.9777 2989041.149 -8.3
538130.5513 2990562.925 -8.0
540379.7362 2989838.632 -9.3
539555.7724 2991254.601 -8.6
539221.846 2993781.958 -8.7
539069.4297 2994635.915 -8.4
537823.5231 2995935.637 -8.3
539409.6919 2995667.511 -8.8
537350.0506 2989326.949 -7.9
536585.8279 2988496.337 -7.8
527247.4101 2998317.622 -0.1
528339.3248 2998305.965 -0.1
528284.6547 2997560.867 -0.6
529903.8408 2998040.164 -0.4
529262.6297 2997351.773 -0.9
527819.8218 2996714.407 -0.4
528621.3075 2996680.993 -0.8
527699.7502 2995260.95 -0.7
528492.5001 2995236.31 -1.1
529319.1439 2995784.292 -1.3
528956.9159 2994752.943 -1.6
530389.1893 2996891.247 -1.5
531711.6718 2998384.528 -0.3
531554.4198 2997892.769 -2.4
531106.055 2997595.762 -0.5
531123.6296 2996903.626 -2.2
531953.5096 2996789.474 -3.0
531109.5185 2996206.087 -2.7
530043.0095 2995828.289 -2.1
536427.1127 2997462.215 -3.8
528372.2281 2994230.305 -2.1
530584.0855 2995287.211 -2.6
529741.6739 2994712.66 -2.3
528702.0823 2993279.707 -2.0
529426.8747 2992992.45 -3.3
530578.6112 2993928.971 -3.0
532023.2887 2993906.163 -4.0
531290.5231 2994564.943 -3.4
532063.8038 2995282.554 -3.6
530780.0287 2992975.007 -3.6
532196.4361 2993031.43 -4.5
530813.4147 2992298.511 -4.2
532251.0868 2992333.852 -4.9
529979.7186 2991683.304 -3.8
531534.2425 2991528.542 -5.2
530172.1366 2990806.233 -5.2
530839.7971 2990173.46 -5.5
532435.0612 2990695.591 -5.7
532375.3968 2989236.251 -6.3
531594.3331 2988663.225 -6.3
530599.7274 2988893.399 -5.9
529341.4716 2988837.514 -5.3
528578.5824 2989501.939 -4.6
527420.9038 2992225.858 -0.2
526004.0625 2991482.783 -0.9
527378.1719 2991626.68 -1.3
527018.1073 2991088.459 -2.1
528215.6442 2991408.282 -1.7
528296.3506 2990782.907 -3.6
526570.0439 2990488.36 -2.3
527715.7357 2990376.3 -3.1
527224.2593 2989476.45 -2.8
529399.2985 2990106.993 -5.2
528575.4169 2992043.435 -2.4
541385.6299 2986636.294 -9.9
536979.7842 2986855.203 -7.6
537379.9417 2985668.241 -7.9
538973.6385 2986228.402 -8.5
540182.8682 2985703.356 -9.3
539462.0478 2985075.215 -9.2
536466.6427 2984493.157 -5.6
538036.3537 2984303.879 -7.9
540218.1326 2982953.014 -9.1
536841.4648 2982933.83 -8.3
536988.3337 2983956.934 -4.7
538403.1629 2982550.579 -7.3
539568.307 2982130.984 -7.8
537605.5975 2980961.042 -2.6
538188.8307 2980548.355 -6.2
537529.5323 2979858.53 -9.3
538816.6892 2979977.082 -11.5
539670.2517 2980561.764 -10.8
541357.3526 2979702.99 -14.2
542866.6123 2984504.583 -11.2
537204.287 2979504.811 -10.3
531224.5472 2986806.048 -6.6
532565.5999 2986280.626 -7.6
533792.2017 2985746.202 -8.1
535881.2268 2985752.007 -7.6
535027.725 2985211.897 -7.5
532359.1805 2984296.763 -6.6
533205.6268 2984905.468 -8.0
531470.0705 2985202.463 -5.7
531641.447 2985058.33 -7.2
530607.5856 2986087.069 -6.5
530549.1665 2984738.28 -6.5
531125.3485 2983452.616 -6.1
530421.735 2982763.218 -5.4
530669.2375 2982499.321 -5.0
531558.1562 2983127.498 -2.3
532191.2221 2983790.312 -2.9
533335.6843 2984392.765 -0.3
534093.7391 2984421.248 -1.6
535751.8995 2984117.321 -5.8
538952.6186 2983442.854 -8.5
535624.9519 2983911.671 -3.2
527962.9751 2988743.052 -3.8
528565.0342 2986735.04 -5.6
529242.5352 2985340.427 -5.7
527214.1006 2983793.191 -5.2
527332.1809 2987959.541 -4.1
526751.4032 2987552.889 -1.2
527235.7059 2987338.891 -5.0
526539.2712 2986597.057 -4.4
525455.9399 2985868.884 -3.1
524885.6121 2985444.643 -3.6
524238.3117 2984694.112 -2.6
525551.582 2984784.869 -4.3
525641.5693 2983885.882 -3.5
524188.0336 2983336.41 -2.2
524436.5011 2982508.151 -1.8
525617.7653 2982589.857 -3.3
526347.8598 2983393.656 -4.9
526635.1555 2985104.463 -5.0
526695.4388 2985774.504 -5.5
527372.4857 2986533.979 -5.2
527921.8916 2985213.041 -5.4
529810.9704 2984071.411 -5.9
528639.0074 2983848.288 -5.4
529133.9966 2983285.206 -5.6
528120.9533 2982921.427 -5.5
527417.0888 2982258.621 -6.5
529188.529 2982580.019 -4.6
529163.848 2981821.705 -3.9
528211.6718 2981784.261 -2.0
530821.8555 2981666.956 -7.2
529877.7857 2981929.19 -3.4
526191.8802 2982097.3 -4.5
515743.3329 2975430.134 -3.3
517154.6485 2975537.837 -3.9
516449.8286 2974848.798 -4.3
519252.0293 2976934.594 -4.4
520503.0664 2977845.056 -5.6
519769.8622 2978575.913 -3.2
521234.1215 2978437.19 -3.4
522151.7986 2978183.004 -0.2
522831.1018 2978078.383 -8.1
523050.7238 2978555.042 -5.0
523658.6652 2978873.668 -4.0
524052.5903 2980408.866 -19.1
524194.4892 2979985.861 -9.9
523931.0997 2979376.869 -11.6
523666.4296 2978184.0 -6.7
525540.0309 2979775.115 -3.0
524128.4534 2981464.5 -0.8
525116.4108 2981259.225 -0.8
525281.3016 2980823.962 -9.7
526195.5619 2981317.863 -3.1
526059.1882 2980751.481 -0.7
526340.2672 2980429.328 -8.0
524153.342 2977691.014 -11.9
520633.5736 2976965.01 -8.4
521422.108 2976975.149 -10.8
522311.153 2977013.74 -7.4
522872.4795 2976824.224 -12.0
525640.0223 2977014.793 -12.2
525971.3048 2978047.434 -13.6
524229.6599 2978366.758 -3.3
525092.5404 2978199.114 -9.2
526523.752 2979561.978 -8.4
526318.3819 2979090.615 -15.0
526075.9681 2978613.871 -5.9
525626.1595 2981216.168 -24.3
527280.1804 2979664.131 -7.4
528112.3849 2979394.346 -8.5
528268.7132 2978508.366 -11.2
527613.1692 2977818.969 -12.8
527020.4054 2978668.782 -2.2
526748.3214 2980123.314 -16.1
529693.0373 2978520.47 -7.9
530185.3531 2977339.77 -10.0
530453.5503 2981317.768 -2.3
528737.3356 2981842.765 -3.5
528515.6439 2981234.741 -5.3
531447.2361 2982398.56 -1.7
531590.0633 2980998.73 -20.4
531292.2376 2980204.357 -1.8
527450.201 2976517.596 -11.0
529374.9637 2979520.697 -7.4
530230.7178 2979381.625 -7.4
521523.2372 2976126.757 -11.2
523015.3557 2975388.4 -10.5
524830.8523 2976282.808 -11.3
524957.1473 2974871.611 -10.1
526517.4931 2975421.757 -10.5
528027.718 2974648.698 -10.2
529260.6093 2975604.267 -10.2
530038.9409 2974750.38 -10.8
529230.9451 2976980.287 -10.3
530432.0954 2976339.215 -10.2
527480.1691 2980844.906 -13.3
531164.7272 2977107.107 -10.4
530910.0747 2979714.683 -2.6
531196.6003 2978538.57 -10.8
531690.6294 2979043.566 -9.0
542322.8047 2978643.09 -14.6
541301.0521 2977570.274 -14.6
541460.7891 2975938.933 -14.6
537328.0278 2975165.124 -13.4
539423.0586 2975226.649 -14.3
544648.5239 2975663.138 -15.6
542758.7921 2976869.499 -14.7
543758.3897 2977953.443 -14.6
544846.045 2979026.667 -14.3
546489.8538 2978701.909 -15.0
547446.8547 2979267.723 -15.1
549483.7982 2979903.933 -16.6
551358.1218 2979823.267 -18.8
548783.4401 2978578.306 -16.6
547566.2379 2977783.37 -15.9
546448.7686 2976572.525 -16.0
544974.289 2977445.715 -14.8
548347.6662 2975499.927 -17.8
548650.4026 2976602.017 -17.4
550329.0851 2977698.865 -18.4
550653.6041 2975964.199 -19.7
538226.8684 2972151.23 -14.5
540629.3707 2972518.765 -15.2
539990.1586 2970409.41 -16.1
542053.0675 2971072.709 -16.7
541203.8789 2968443.348 -17.8
539448.7657 2967431.457 -17.3
539290.7222 2973954.488 -14.4
541386.9807 2973971.79 -15.1
543395.4287 2974889.038 -15.4
546031.3615 2974930.16 -16.7
538536.4223 2978260.486 -13.5
539409.2509 2976675.526 -14.0
541085.4254 2965784.076 -19.1
538786.1733 2965882.75 -17.7
538717.8841 2963964.852 -18.2
539188.8235 2962440.418 -19.6
540441.1224 2961861.508 -20.5
539281.0325 2960045.543 -20.5
537800.7796 2958832.689 -20.5
536059.7869 2956018.293 -21.8
532848.0011 2955733.904 -18.0
538559.0289 2956979.827 -22.1
533354.4693 2956668.218 -20.8
534417.4088 2955653.244 -13.8
541281.9695 2963994.156 -20.0
541401.0668 2959978.104 -22.5
542275.653 2961517.779 -22.5
539307.634 2954882.83 -23.7
539704.1084 2953558.572 -24.0
541176.9158 2953934.416 -25.0
541568.4176 2950955.56 -27.0
542984.0797 2949485.851 -30.0
545911.9871 2949453.654 -33.0
544813.916 2950998.412 -30.5
544178.0209 2953902.091 -28.0
546081.3249 2952487.801 -30.5
548744.6626 2946599.698 -37.0
545964.8818 2946557.524 -34.0
543312.4899 2946495.172 -32.0
540109.4236 2949455.242 -26.0
541620.3226 2948059.772 -28.5
538850.6586 2948284.41 -24.1
537190.5983 2946390.931 -23.5
538578.4962 2947074.112 -24.6
540055.2615 2946442.063 -27.5
540047.3298 2952329.469 -23.0
539435.7361 2951192.714 -24.9
539142.2522 2950056.864 -24.3
537405.5086 2949082.791 -22.1
535635.1505 2949912.189 -22.2
537465.5521 2950306.387 -22.7
536949.5486 2955091.343 -21.3
534838.7833 2946655.724 -19.4
535413.3706 2946701.519 -20.2
537101.0381 2947844.658 -21.6
535929.9868 2953960.453 -15.9
536370.2338 2954516.643 -5.0
537760.4208 2953548.665 -25.3
534810.5687 2952921.626 -21.9
535958.532 2953242.97 -21.1
536297.1264 2952271.798 -18.6
537161.68 2952804.563 -15.2
538108.064 2952551.077 -3.4
537799.5341 2952285.019 -8.9
537598.0684 2951674.588 -24.6
535919.092 2948434.483 -10.8
535999.2649 2948222.534 -6.6
536619.8841 2947605.438 -12.4
535647.838 2947434.695 -6.8
534857.6298 2948652.543 -8.4
531026.8164 2946220.123 -17.3
531945.2559 2946673.332 -19.9
533175.4539 2946216.697 -19.6
533164.8602 2946888.653 -19.6
532980.1052 2946534.503 -3.3
535955.8881 2951054.67 -21.7
533675.2731 2947130.484 -22.2
531367.3748 2947959.191 -17.8
532055.5307 2948526.711 -5.1
532498.2784 2948244.935 -13.7
532535.3979 2947555.438 -25.6
534444.4156 2947808.013 -16.7
533443.0434 2948698.252 -7.1
532849.2496 2949271.316 -12.7
534228.1162 2949336.832 -17.8
534332.5481 2949947.055 -21.7
533120.5534 2950323.934 -21.8
531423.9917 2950089.804 -27.2
534257.7847 2951449.484 -21.9
531766.5646 2950956.887 -22.0
535024.7022 2948976.559 -3.4
530068.6317 2951332.818 -23.0
531631.4499 2951972.971 -20.9
532771.0336 2952179.134 -21.9
528215.184 2946156.991 -17.2
526640.9991 2946295.072 -16.9
523519.2428 2946589.545 -15.5
525053.8046 2948572.875 -15.3
525524.5565 2947468.713 -15.9
527839.9431 2947924.461 -17.2
529821.4113 2947451.535 -17.4
529922.7012 2949493.929 -20.8
526882.88 2948992.102 -16.2
528539.28 2951461.867 -17.1
528568.9668 2950047.71 -17.6
529832.5211 2950253.916 -18.1
529853.6257 2948795.404 -18.9
530962.0124 2951048.592 -9.2
530949.2276 2950489.941 -4.6
532888.6445 2980296.011 -5.7
532752.4498 2979771.836 -10.2
533310.6104 2979297.086 -10.6
532471.1275 2978580.529 -9.9
531931.8008 2979801.471 -8.0
532353.1324 2980564.457 -15.0
532605.4075 2977815.32 -10.3
532044.9902 2976217.351 -10.7
531698.9982 2980494.008 -2.0
534453.6813 2979249.017 -7.0
534992.5758 2978915.377 -13.0
534465.8864 2978014.322 -11.8
536151.3479 2977719.173 -13.0
534109.0841 2976240.419 -11.5
535712.8702 2976827.054 -12.6
537336.4816 2976628.889 -13.2
537322.0951 2973747.599 -13.8
535227.7878 2973021.596 -13.2
533139.9195 2973788.838 -12.1
531601.0566 2975256.45 -11.0
533412.4572 2974816.498 -11.9
535444.4802 2975033.786 -12.8
535647.3458 2970682.583 -14.1
537672.277 2969936.55 -15.1
533444.646 2970665.958 -13.1
531772.6846 2970163.892 -13.0
530288.4301 2970827.421 -12.1
530316.7564 2972257.045 -11.7
531181.9357 2973508.562 -11.7
533980.6895 2972171.093 -13.0
536100.4387 2971478.104 -13.9
526147.9612 2970744.026 -10.7
527198.4137 2969793.119 -11.1
529562.2408 2968898.191 -12.2
529514.34 2966737.225 -12.9
529828.2175 2963909.227 -14.0
525447.7701 2960847.734 -12.6
526911.7557 2960172.457 -13.3
528331.8987 2960217.95 -14.3
529559.5881 2960973.249 -15.0
531167.2686 2962291.21 -15.2
532685.8716 2961044.524 -16.6
534399.4419 2962267.794 -16.6
535938.9956 2961222.913 -18.2
537719.4476 2961228.094 -19.2
537207.1701 2962445.293 -18.4
536005.5244 2963914.715 -16.6
537263.3191 2964967.299 -16.8
534794.7829 2964939.072 -15.6
533166.2157 2963779.798 -15.4
531711.724 2964920.365 -14.2
532289.6697 2966786.389 -14.0
534724.9229 2967227.17 -14.8
537170.7346 2967626.068 -15.8
533322.5394 2965840.58 -14.6
524412.8102 2974000.582 -10.1
526563.5647 2973263.81 -10.4
527244.1603 2971888.772 -10.9
524097.2814 2972909.449 -10.2
525030.7367 2972053.605 -10.4
524803.0316 2969384.492 -10.5
525493.328 2968453.82 -11.0
527230.664 2968330.346 -11.5
525463.9718 2967256.827 -11.2
525318.2627 2965964.14 -11.4
523625.4938 2964753.097 -11.0
524793.1387 2963632.22 -11.8
524073.4947 2970764.164 -10.3
522370.6771 2973033.233 -10.0
520494.9023 2973537.371 -8.2
518873.3792 2973744.38 -7.4
517842.6055 2976945.719 -3.1
519801.6372 2976392.945 -6.3
522467.0051 2974917.116 -4.2
521000.1718 2974229.979 -3.4
552330.328 3012363.18 -0.6
559513.025 3011290.718 -9.0
539974.2567 2983753.258 -9.5
531831.17 2968689.878 -13.3
534142.1593 2969260.798 -13.8
536313.6111 2969178.601 -14.8
527419.5159 2963912.37 -12.7
536031.5871 2965938.185 -16.1
538777.2428 2968806.402 -16.2
527542.5352 2966577.608 -12.0
528064.2203 2965402.831 -12.6
526391.2109 2964964.847 -12.1
523274.4392 2966007.559 -10.6
524119.6328 2967216.789 -10.7
523206.982 2968126.031 -10.3
522748.0796 2970031.628 -10.1
522628.9092 2971524.584 -10.1
517694.7223 2963688.844 -8.0
519845.6297 2963713.229 -9.4
519306.5118 2962885.898 -9.0
522328.7513 2967605.424 -10.1
523416.8771 2974871.779 -8.7
513834.2498 2979077.712 -0.2
513738.1183 2978275.05 -0.3
512309.97 2977638.546 -0.1
512011.3535 2976315.185 -0.4
511562.1462 2975591.426 -1.4
512206.9104 2974771.612 -1.8
508644.033 2972995.312 -0.4
510205.5884 2973199.413 -1.1
510955.593 2973147.104 -1.3
511881.4926 2973712.613 -2.1
512897.2389 2972610.717 -3.2
513468.9918 2974278.855 -2.7
513149.2194 2976351.605 -1.9
514340.1406 2976264.698 -2.4
513300.4935 2975099.131 -2.4
514863.0064 2974209.845 -3.6
514658.9608 2975180.036 -3.1
514286.4782 2976917.373 -1.8
514983.2453 2976962.285 -2.1
515870.9281 2979485.787 -1.0
515545.8332 2978515.282 -1.3
517555.4582 2979382.202 -0.8
517009.8942 2978490.72 -2.2
516225.856 2977801.748 -1.8
516368.0818 2976946.37 -2.3
517619.2997 2977874.182 -3.0
519074.4865 2977938.045 -4.1
518526.887 2978457.585 -4.0
514220.5104 2972841.552 -3.8
515755.0728 2973408.062 -4.6
516592.5266 2973964.974 -4.7
517307.1937 2973939.468 -5.7
515800.0884 2972693.435 -5.4
518067.0191 2973190.589 -6.7
520208.1141 2975020.106 -8.4
520851.5197 2975374.027 -8.1
520312.6813 2975823.042 -6.6
520893.9916 2976362.083 -1.6
518821.821 2975856.009 -2.9
518007.594 2974637.42 -5.4
519635.7799 2974317.84 -4.8
518875.7924 2975163.599 -3.2
519713.3999 2975460.409 -1.3
522259.1631 2977533.148 -11.4
522638.6181 2977432.395 -4.9
509771.5667 2971965.536 -1.2
509850.1545 2970758.419 -1.4
508992.167 2971061.348 -0.2
509372.2915 2970161.482 -0.3
509452.4737 2969164.249 -0.3
510811.4426 2969421.29 -1.6
511181.419 2970224.732 -2.1
511932.206 2969537.035 -2.5
510283.3189 2967673.225 -1.2
510063.5741 2966516.66 -0.1
510805.4262 2966137.671 -0.9
511520.008 2966676.804 -2.0
510839.719 2967329.434 -1.6
511713.4217 2967533.239 -2.1
512898.0242 2965804.164 -2.6
511971.4956 2965335.343 -1.8
514318.7993 2966317.726 -3.0
513691.2292 2967040.901 -3.4
513151.631 2968117.23 -3.6
512117.8148 2969254.786 -2.0
514405.5164 2967686.084 -4.8
515086.077 2966945.388 -5.5
515978.5896 2966213.78 -7.4
514382.1888 2964914.076 -6.5
514506.7382 2964093.1 -5.7
515954.0536 2964668.749 -8.0
516844.9429 2965305.586 -8.1
513800.3792 2964092.31 -4.7
511778.8053 2963684.101 -2.0
518664.2452 2964902.016 -8.5
517709.4881 2965783.507 -8.2
517151.6207 2967018.645 -7.6
515747.187 2967714.166 -6.7
514996.136 2968348.778 -5.8
517335.2986 2968254.683 -8.0
515197.5832 2969646.455 -5.9
513811.9076 2969697.814 -4.8
511571.3448 2968459.918 -2.3
510115.1782 2968211.524 -0.1
516247.4028 2969983.132 -6.7
565954.0575 3008520.237 -14.6
558459.9258 3012249.81 -8.4
559335.7492 3013042.079 -8.4
558138.8713 2994973.351 -16.4
510447.9038 2974297.014 -0.9
516982.8265 2972129.32 -6.6
518317.0087 2972120.599 -7.6
516284.8889 2971418.938 -6.3
513479.4676 2970727.305 -4.4
511180.374 2971974.594 -1.8
510799.7484 2971307.152 -1.8
512229.3394 2971276.689 -2.9
514356.9842 2971998.99 -4.7
514845.5679 2970718.249 -5.5
517725.9317 2970774.919 -7.5
519080.5183 2971380.502 -8.2
519969.1072 2971953.689 -8.5
516558.3762 2969054.133 -6.7
518560.78 2969807.113 -8.4
518793.637 2967530.263 -8.9
520015.6489 2970656.561 -9.1
521242.0768 2970799.767 -9.4
521091.4332 2969587.361 -9.6
521388.6786 2972033.67 -9.6
521430.0804 2968441.861 -9.8
519320.4499 2968500.24 -9.0
520778.0209 2967769.939 -9.6
521777.3218 2966694.685 -9.9
521787.3533 2965997.292 -10.1
519466.9908 2966194.785 -9.1
520519.2809 2965119.379 -9.7
520865.386 2964042.783 -10.0
522020.0673 2965183.707 -10.2
522207.31 2964142.195 -10.4
522462.532 2969571.635 -10.0
512954.6508 2963502.418 -3.7
520871.6221 2962644.245 -10.0
521898.5356 2962436.253 -10.6
523035.2768 2962548.655 -11.1
525871.8268 2962697.636 -12.4
524053.6128 2961587.207 -11.8
522883.8322 2961386.332 -11.3
521946.3724 2960876.852 -11.0
520588.6284 2960786.253 -10.2
520013.7254 2961315.231 -9.7
520679.1991 2959406.349 -10.6
520173.2655 2958179.921 -10.9
522125.9374 2959199.012 -11.4
523231.9975 2958140.991 -12.2
525029.7302 2959226.5 -12.7
523934.5186 2960350.536 -12.1
527299.9924 2961185.338 -13.3
526719.8179 2958854.545 -13.6
525242.5268 2957714.184 -13.2
526777.7843 2957551.696 -14.0
528178.7741 2958195.195 -14.6
529116.1617 2958716.285 -15.1
530531.2478 2957990.842 -16.4
530990.9406 2959659.244 -16.0
517516.28 2960304.567 -7.7
516148.1775 2960996.937 -6.7
515799.8791 2959841.261 -6.6
518662.5223 2959219.801 -9.5
518721.9551 2958456.7 -10.1
518092.6704 2961163.835 -7.9
517704.4087 2962196.538 -7.5
516332.0745 2962210.588 -6.6
511887.5171 2963155.791 -2.4
512941.1806 2962068.904 -2.3
514731.6893 2960894.528 -5.5
514216.7984 2960109.656 -4.7
522671.5242 2974296.991 -0.8
521601.8464 2984514.89 -0.5
522624.5871 2984419.725 -2.3
530346.3106 2956775.066 -16.6
531476.6902 2956963.349 -17.9
531400.3535 2955682.077 -17.2
530739.5099 2954929.418 -16.6
530282.4273 2953929.81 -17.5
530374.2385 2952489.564 -18.7
531717.3228 2952590.062 -19.6
532114.7905 2952679.437 -7.3
532246.9302 2952847.685 -1.4
532695.6988 2953599.997 -17.4
533078.4918 2952522.833 -12.0
533351.143 2953027.286 -6.0
533730.0882 2953425.963 -20.6
533640.0095 2954070.815 -11.7
535027.155 2954145.261 -6.0
534098.9848 2954266.445 -4.9
532766.0985 2957134.473 -19.7
534365.5718 2956979.686 -21.8
535775.0761 2955278.384 -14.0
533964.4818 2954999.494 -9.1
536678.1303 2957710.586 -21.5
534848.3128 2958129.454 -20.5
533311.1471 2959502.733 -18.3
534610.0974 2959311.891 -18.6
533164.3015 2958239.185 -19.3
523972.5234 2956071.698 -12.8
524001.763 2954622.704 -13.1
524172.7019 2953023.58 -13.6
524343.7059 2951406.579 -14.2
521181.3941 2950304.906 -13.8
522560.2728 2950324.957 -13.9
525459.3955 2950383.468 -14.8
526870.641 2951809.397 -15.3
527173.4524 2950731.74 -15.7
525412.7577 2956021.491 -13.5
526439.8486 2954963.321 -14.4
528225.2894 2954702.085 -15.8
527356.0974 2956211.073 -14.7
528874.4385 2956779.873 -15.6
529963.7714 2955651.506 -16.6
530338.0648 2950615.155 -6.4
520977.8926 2961909.492 -10.3
521247.7278 2961622.93 -9.7
519359.2032 2959945.528 -9.7
521280.3151 2957280.934 -11.6
518647.964 2957100.101 -11.1
517411.2939 2956992.329 -10.4
517055.7113 2958626.118 -8.5
516792.2374 2957477.38 -9.4
516449.0785 2956416.789 -11.2
528727.8916 2962626.917 -13.7
511470.9716 2962384.029 -2.1
510803.7863 2961901.277 -1.8
510716.4676 2960731.922 -1.6
511811.7959 2961804.448 -2.0
511515.4239 2961415.6 -2.2
514058.7975 2963054.077 -4.9
514686.2266 2962639.762 -5.8
514074.5315 2961613.802 -5.2
513933.9087 2960995.444 -5.0
512829.5953 2961347.539 -1.9
510605.5918 2959543.743 -1.6
511285.1368 2960180.267 -1.9
512212.6997 2959995.649 -2.5
511604.5787 2958564.155 -1.8
513532.0712 2959345.499 -4.5
514485.5797 2959721.059 -5.4
514055.447 2958915.02 -6.0
512204.2929 2958644.571 -2.3
514366.9859 2958378.304 -5.6
514219.5106 2957551.295 -4.3
515978.2722 2958330.766 -8.2
516240.9376 2957398.243 -11.4
514904.2362 2955978.488 -5.9
514171.2568 2955672.831 -1.5
513583.8723 2955508.733 -4.2
512705.0246 2955229.501 -6.5
513668.4697 2954903.578 -5.8
514574.1842 2954873.66 -10.9
515682.6222 2955254.923 -0.1
516270.6166 2954924.32 -3.9
516468.5061 2955631.429 -8.0
513289.1017 2954346.5 -6.4
513767.1595 2953525.208 -6.3
518042.4883 2952040.576 -13.1
515727.5394 2951569.081 -11.5
514675.4195 2951885.994 -9.0
513835.6623 2952017.621 -7.4
511023.1704 2954365.537 -0.2
510661.6126 2953490.407 -4.9
512180.6901 2954393.104 -2.5
511969.8707 2953076.232 -5.2
510644.6954 2952597.835 -2.0
511034.081 2951979.527 -4.2
510636.8783 2951378.195 -1.2
510840.017 2951546.294 -1.3
511168.0257 2950406.394 -2.5
511918.1196 2951715.185 -5.3
512872.1295 2952219.879 -6.6
513907.2045 2951257.616 -8.0
512192.9463 2950831.603 -5.0
512442.0701 2949161.212 -5.5
513643.9429 2949489.517 -10.3
513749.4266 2950037.679 -9.9
514570.8022 2950630.813 -10.8
516498.3543 2950111.664 -14.6
517849.7936 2950802.934 -13.9
516255.7198 2953222.39 -10.2
515945.2671 2954141.021 -9.9
516324.7426 2954521.465 -11.4
518364.9412 2955186.952 -11.7
518393.3593 2953870.4 -12.2
514858.7613 2953812.75 -8.9
515142.639 2952885.2 -8.9
517816.3057 2949468.16 -15.0
519469.5892 2949302.628 -14.3
523624.3385 2949291.989 -14.5
522469.1984 2947663.254 -14.9
520906.3473 2946440.475 -14.8
518094.6431 2946445.009 -16.1
516830.4957 2946266.438 -18.4
515733.5866 2946680.599 -20.0
515449.4654 2947661.635 -19.1
516465.7277 2948007.703 -17.4
518057.3404 2947806.524 -15.7
